    1.5700001E+00  1.3470000E+01     0.0000000E+00   
    1.4299999E+00  1.3180000E+01     0.0000000E+00   
    1.4800000E+00  1.2880000E+01     0.0000000E+00   
    1.5300000E+00  1.2580000E+01     0.0000000E+00   
    1.4800000E+00  1.2280000E+01     0.0000000E+00   
    1.2700000E+00  1.2020000E+01     0.0000000E+00   
    1.0900000E+00  1.1750000E+01     0.0000000E+00   
    9.4999999E-01  1.1460000E+01     0.0000000E+00   
    7.4000001E-01  1.1200000E+01     0.0000000E+00   
    5.6000000E-01  1.0930000E+01     0.0000000E+00   
    4.4000000E-01  1.0630000E+01     0.0000000E+00   
    4.6000001E-01  1.0330000E+01     0.0000000E+00   
    5.6000000E-01  1.0030000E+01     0.0000000E+00   
    7.0999998E-01  9.7500000E+00     0.0000000E+00   
    8.7000000E-01  9.4600000E+00     0.0000000E+00   
    1.0200000E+00  9.1599998E+00     0.0000000E+00   
    1.1799999E+00  8.8900003E+00     0.0000000E+00   
    1.2900000E+00  8.5900002E+00     0.0000000E+00   
    1.4200000E+00  8.3100004E+00     0.0000000E+00   
    1.5100000E+00  8.0100002E+00     0.0000000E+00   
    1.5300000E+00  7.7100000E+00     0.0000000E+00   
    1.6799999E+00  7.4499998E+00     0.0000000E+00   
    1.9000000E+00  7.2300000E+00     0.0000000E+00   
    1.8600000E+00  6.9299998E+00     0.0000000E+00   
    2.0999999E+00  6.7399998E+00     0.0000000E+00   
    2.4000001E+00  6.5999999E+00     0.0000000E+00   
    2.7000000E+00  6.6199999E+00     0.0000000E+00   
    2.9700000E+00  6.7900000E+00     0.0000000E+00   
    3.0999999E+00  7.0900002E+00     0.0000000E+00   
    3.3199999E+00  6.9600000E+00     0.0000000E+00   
    3.2500000E+00  6.6700001E+00     0.0000000E+00   
    3.2300000E+00  6.3699999E+00     0.0000000E+00   
    3.3499999E+00  6.0799999E+00     0.0000000E+00   
    3.4300001E+00  5.7900000E+00     0.0000000E+00   
    3.4800000E+00  5.4899998E+00     0.0000000E+00   
    3.5400000E+00  5.1900001E+00     0.0000000E+00   
    3.5799999E+00  4.8899999E+00     0.0000000E+00   
    3.7000000E+00  4.6199999E+00     0.0000000E+00   
    3.7100000E+00  4.3200002E+00     0.0000000E+00   
    3.6099999E+00  4.0599999E+00     0.0000000E+00   
    3.4900000E+00  3.8099999E+00     0.0000000E+00   
    3.6199999E+00  3.5699999E+00     0.0000000E+00   
    3.6700001E+00  3.2700000E+00     0.0000000E+00   
    3.7500000E+00  2.9700000E+00     0.0000000E+00   
    3.8800001E+00  2.6800001E+00     0.0000000E+00   
    3.8099999E+00  2.3800001E+00     0.0000000E+00   
    3.7200000E+00  2.0799999E+00     0.0000000E+00   
    3.6500001E+00  1.7800000E+00     0.0000000E+00   
    3.7500000E+00  1.4900000E+00     0.0000000E+00   
    3.8900001E+00  1.1900001E+00     0.0000000E+00   
    3.8900001E+00  8.8999999E-01     0.0000000E+00   
    3.8000000E+00  5.8999997E-01     0.0000000E+00   
    3.7500000E+00  3.7000000E-01     0.0000000E+00   
    4.1500001E+00  3.7000000E-01     0.0000000E+00   
    4.5500002E+00  3.4999999E-01     0.0000000E+00   
    4.9499998E+00  3.6000001E-01     0.0000000E+00   
    5.3499999E+00  3.7000000E-01     0.0000000E+00   
    5.7500000E+00  4.1000000E-01     0.0000000E+00   
    6.1500001E+00  5.1999998E-01     0.0000000E+00   
    6.5500002E+00  6.9000000E-01     0.0000000E+00   
    6.9499998E+00  8.5000002E-01     0.0000000E+00   
    7.3499999E+00  9.8000002E-01     0.0000000E+00   
    7.7399998E+00  1.1600000E+00     0.0000000E+00   
    8.1400003E+00  1.2700000E+00     0.0000000E+00   
    8.5299997E+00  1.4400001E+00     0.0000000E+00   
    8.9300003E+00  1.6000000E+00     0.0000000E+00   
    9.3299999E+00  1.7400000E+00     0.0000000E+00   
    9.7200003E+00  1.9000000E+00     0.0000000E+00   
    1.0120000E+01  2.0500000E+00     0.0000000E+00   
    9.9799995E+00  2.4400001E+00     0.0000000E+00   
    9.8100004E+00  2.8299999E+00     0.0000000E+00   
    9.6700001E+00  3.1400001E+00     0.0000000E+00   
    9.6499996E+00  3.4400001E+00     0.0000000E+00   
    9.3800001E+00  3.5999999E+00     0.0000000E+00   
    9.3199997E+00  3.9000001E+00     0.0000000E+00   
    9.4399996E+00  4.1700001E+00     0.0000000E+00   
    9.5699997E+00  4.2300000E+00     0.0000000E+00   
    9.9099998E+00  4.2100000E+00     0.0000000E+00   
    1.0210000E+01  4.0300002E+00     0.0000000E+00   
    1.0390000E+01  4.1799998E+00     0.0000000E+00   
    1.0400000E+01  4.5799999E+00     0.0000000E+00   
    1.0420000E+01  4.9800000E+00     0.0000000E+00   
    1.0450000E+01  5.3800001E+00     0.0000000E+00   
    1.0460000E+01  5.7800002E+00     0.0000000E+00   
    1.0480000E+01  6.1799998E+00     0.0000000E+00   
    1.0180000E+01  6.4000001E+00     0.0000000E+00   
    9.7799997E+00  6.4699998E+00     0.0000000E+00   
    9.3800001E+00  6.4899998E+00     0.0000000E+00   
    9.0699997E+00  6.1700001E+00     0.0000000E+00   
    8.9499998E+00  5.9600000E+00     0.0000000E+00   
    8.7100000E+00  6.1100001E+00     0.0000000E+00   
    8.5699997E+00  6.4000001E+00     0.0000000E+00   
    8.4700003E+00  6.6999998E+00     0.0000000E+00   
    8.2100000E+00  6.9000001E+00     0.0000000E+00   
    7.9699998E+00  7.1500001E+00     0.0000000E+00   
    7.7399998E+00  7.4000001E+00     0.0000000E+00   
    7.5599999E+00  7.6799998E+00     0.0000000E+00   
    7.4400001E+00  7.9600000E+00     0.0000000E+00   
    7.2800002E+00  8.2399998E+00     0.0000000E+00   
    7.1300001E+00  8.5200005E+00     0.0000000E+00   
    6.9400001E+00  8.7900000E+00     0.0000000E+00   
    6.7100000E+00  9.0200005E+00     0.0000000E+00   
    6.5200000E+00  9.2799997E+00     0.0000000E+00   
    6.3299999E+00  9.5400000E+00     0.0000000E+00   
    6.0900002E+00  9.7299995E+00     0.0000000E+00   
    5.8499999E+00  9.9600000E+00     0.0000000E+00   
    5.6900001E+00  1.0230000E+01     0.0000000E+00   
    5.5200000E+00  1.0510000E+01     0.0000000E+00   
    5.4200001E+00  1.0810000E+01     0.0000000E+00   
    5.3299999E+00  1.1110000E+01     0.0000000E+00   
    5.2800002E+00  1.1410000E+01     0.0000000E+00   
    5.5300002E+00  1.1560000E+01     0.0000000E+00   
    5.8099999E+00  1.1720000E+01     0.0000000E+00   
    6.0000000E+00  1.1940000E+01     0.0000000E+00   
    5.8000002E+00  1.2210000E+01     0.0000000E+00   
    5.6399999E+00  1.2450000E+01     0.0000000E+00   
    5.5599999E+00  1.2620000E+01     0.0000000E+00   
    5.1599998E+00  1.2700000E+01     0.0000000E+00   
    4.7399998E+00  1.2760000E+01     0.0000000E+00   
    4.3299999E+00  1.2890000E+01     0.0000000E+00   
    3.9000001E+00  1.2990000E+01     0.0000000E+00   
    3.5000000E+00  1.3060000E+01     0.0000000E+00   
    3.0999999E+00  1.3160000E+01     0.0000000E+00   
    2.7000000E+00  1.3240000E+01     0.0000000E+00   
    2.3000000E+00  1.3300000E+01     0.0000000E+00   
    1.9000000E+00  1.3400000E+01     0.0000000E+00   
    4.0900002E+00  8.0799999E+00     0.0000000E+00   
    3.8599999E+00  8.3100004E+00     0.0000000E+00   
    3.5799999E+00  8.4899998E+00     0.0000000E+00   
    3.3199999E+00  8.6700001E+00     0.0000000E+00   
    3.0300000E+00  8.8199997E+00     0.0000000E+00   
    2.8099999E+00  9.0299997E+00     0.0000000E+00   
    2.7700000E+00  9.2200003E+00     0.0000000E+00   
    3.0699999E+00  9.2500000E+00     0.0000000E+00   
    3.3699999E+00  9.2500000E+00     0.0000000E+00   
    3.6700001E+00  9.2399998E+00     0.0000000E+00   
    3.9700000E+00  9.2500000E+00     0.0000000E+00   
    4.2399998E+00  9.1000004E+00     0.0000000E+00   
    4.4800000E+00  8.8199997E+00     0.0000000E+00   
    4.6199999E+00  8.5200005E+00     0.0000000E+00   
    4.7700000E+00  8.2399998E+00     0.0000000E+00   
    5.0300002E+00  8.0600004E+00     0.0000000E+00   
    5.3299999E+00  8.0200005E+00     0.0000000E+00   
    5.6300001E+00  7.9400001E+00     0.0000000E+00   
    5.8200002E+00  7.6599998E+00     0.0000000E+00   
    5.9600000E+00  7.3600001E+00     0.0000000E+00   
    5.9899998E+00  7.0599999E+00     0.0000000E+00   
    5.8299999E+00  6.8000002E+00     0.0000000E+00   
    5.5700002E+00  6.6199999E+00     0.0000000E+00   
    5.3099999E+00  6.4400001E+00     0.0000000E+00   
    5.0700002E+00  6.2500000E+00     0.0000000E+00   
    4.8000002E+00  6.0999999E+00     0.0000000E+00   
    4.5500002E+00  6.2300000E+00     0.0000000E+00   
    4.3800001E+00  6.5100002E+00     0.0000000E+00   
    4.2500000E+00  6.8099999E+00     0.0000000E+00   
    4.2800002E+00  7.1100001E+00     0.0000000E+00   
    4.4299998E+00  7.3899999E+00     0.0000000E+00   
    4.3600001E+00  7.6900001E+00     0.0000000E+00   
    4.1900001E+00  7.9699998E+00     0.0000000E+00   
    4.2900000E+00  6.1000001E-01     5.0000000E+00   
    4.1700001E+00  1.0100000E+00     5.0000000E+00   
    4.0599999E+00  1.4100000E+00     5.0000000E+00   
    4.0100002E+00  1.8099999E+00     5.0000000E+00   
    4.0500002E+00  2.2100000E+00     5.0000000E+00   
    4.0799999E+00  2.6099999E+00     5.0000000E+00   
    4.0400000E+00  3.0100000E+00     5.0000000E+00   
    3.8900001E+00  3.4100001E+00     5.0000000E+00   
    3.9000001E+00  3.6900001E+00     5.0000000E+00   
    4.8000002E+00  5.6000000E-01     1.0000000E+01   
    4.7500000E+00  9.5999998E-01     1.0000000E+01   
    4.7100000E+00  1.3600000E+00     1.0000000E+01   
    4.6399999E+00  1.7600000E+00     1.0000000E+01   
    4.5400000E+00  2.1600001E+00     1.0000000E+01   
    4.4299998E+00  2.5599999E+00     1.0000000E+01   
    4.3000002E+00  2.9600000E+00     1.0000000E+01   
    4.2100000E+00  3.3599999E+00     1.0000000E+01   
    4.1300001E+00  3.7600000E+00     1.0000000E+01   
    3.9900000E+00  4.1599998E+00     1.0000000E+01   
    3.9200001E+00  4.5599999E+00     1.0000000E+01   
    3.7700000E+00  4.9600000E+00     1.0000000E+01   
    3.7000000E+00  5.3600001E+00     1.0000000E+01   
    3.5599999E+00  5.7600002E+00     1.0000000E+01   
    3.5599999E+00  6.1599998E+00     1.0000000E+01   
    3.5200000E+00  6.5599999E+00     1.0000000E+01   
    3.4800000E+00  6.9600000E+00     1.0000000E+01   
    3.2000000E+00  7.2600002E+00     1.0000000E+01   
    2.8900001E+00  6.9800000E+00     1.0000000E+01   
    2.4900000E+00  6.9699998E+00     1.0000000E+01   
    2.1099999E+00  7.2500000E+00     1.0000000E+01   
    1.9100000E+00  7.6500001E+00     1.0000000E+01   
    1.7200000E+00  8.0400000E+00     1.0000000E+01   
    1.5500000E+00  8.4399996E+00     1.0000000E+01   
    1.3800000E+00  8.8400002E+00     1.0000000E+01   
    1.2400000E+00  9.2399998E+00     1.0000000E+01   
    1.0700001E+00  9.6400003E+00     1.0000000E+01   
    9.8000002E-01  1.0040000E+01     1.0000000E+01   
    1.1200000E+00  1.0440000E+01     1.0000000E+01   
    1.3099999E+00  1.0830000E+01     1.0000000E+01   
    1.4200000E+00  1.1230000E+01     1.0000000E+01   
    1.5400000E+00  1.1630000E+01     1.0000000E+01   
    1.8300000E+00  1.2010000E+01     1.0000000E+01   
    1.9800000E+00  1.2410000E+01     1.0000000E+01   
    1.9900000E+00  1.2810000E+01     1.0000000E+01   
    1.9100000E+00  1.3170000E+01     1.0000000E+01   
    6.4200001E+00  8.6000001E-01     2.0000000E+01   
    6.2399998E+00  1.2600000E+00     2.0000000E+01   
    5.9400001E+00  1.6000000E+00     2.0000000E+01   
    5.5400000E+00  1.6500000E+00     2.0000000E+01   
    5.1799998E+00  1.8300000E+00     2.0000000E+01   
    5.0300002E+00  2.2300000E+00     2.0000000E+01   
    4.9699998E+00  2.6300001E+00     2.0000000E+01   
    4.9299998E+00  3.0300000E+00     2.0000000E+01   
    4.9000001E+00  3.2200000E+00     2.0000000E+01   
    7.0000000E+00  1.2100000E+00     2.0000000E+01   
    6.9899998E+00  1.6100000E+00     2.0000000E+01   
    7.0999999E+00  2.0100000E+00     2.0000000E+01   
    7.0400000E+00  2.3099999E+00     2.0000000E+01   
    7.7300000E+00  1.4500000E+00     3.0000000E+01   
    7.6300001E+00  1.8500000E+00     3.0000000E+01   
    7.4899998E+00  2.2500000E+00     3.0000000E+01   
    7.3600001E+00  2.6500001E+00     3.0000000E+01   
    7.4000001E+00  3.0500000E+00     3.0000000E+01   
    7.3800001E+00  3.4500000E+00     3.0000000E+01   
    7.2800002E+00  3.8499999E+00     3.0000000E+01   
    7.2199998E+00  4.2500000E+00     3.0000000E+01   
    7.2100000E+00  4.6500001E+00     3.0000000E+01   
    7.1999998E+00  5.0500002E+00     3.0000000E+01   
    7.0500002E+00  5.4499998E+00     3.0000000E+01   
    6.9499998E+00  5.8499999E+00     3.0000000E+01   
    6.7500000E+00  6.2500000E+00     3.0000000E+01   
    6.6100001E+00  6.6500001E+00     3.0000000E+01   
    6.4600000E+00  7.0500002E+00     3.0000000E+01   
    6.2600002E+00  7.4499998E+00     3.0000000E+01   
    6.0000000E+00  7.8299999E+00     3.0000000E+01   
    5.6799998E+00  8.1999998E+00     3.0000000E+01   
    5.2800002E+00  8.4200001E+00     3.0000000E+01   
    5.0100002E+00  8.8100004E+00     3.0000000E+01   
    4.8499999E+00  9.2100000E+00     3.0000000E+01   
    4.5700002E+00  9.5900002E+00     3.0000000E+01   
    4.1799998E+00  9.7900000E+00     3.0000000E+01   
    3.8299999E+00  1.0060000E+01     3.0000000E+01   
    3.6800001E+00  1.0460000E+01     3.0000000E+01   
    3.4800000E+00  1.0860000E+01     3.0000000E+01   
    3.3000000E+00  1.1260000E+01     3.0000000E+01   
    3.2100000E+00  1.1660000E+01     3.0000000E+01   
    3.1800001E+00  1.2060000E+01     3.0000000E+01   
    3.2100000E+00  1.2460000E+01     3.0000000E+01   
    3.2900000E+00  1.2720000E+01     3.0000000E+01   
    8.4899998E+00  1.7500000E+00     3.0000000E+01   
    8.3699999E+00  2.1500001E+00     3.0000000E+01   
    8.2600002E+00  2.5500000E+00     3.0000000E+01   
    8.3199997E+00  2.9300001E+00     3.0000000E+01   
    8.7200003E+00  2.9700000E+00     3.0000000E+01   
    9.0299997E+00  2.6900001E+00     3.0000000E+01   
    9.2200003E+00  2.2900000E+00     3.0000000E+01   
    9.2799997E+00  2.1300001E+00     3.0000000E+01   
    9.8699999E+00  2.2300000E+00     3.0000000E+01   
    9.7100000E+00  2.6300001E+00     3.0000000E+01   
    9.4799995E+00  3.0300000E+00     3.0000000E+01   
    9.2399998E+00  3.4200001E+00     3.0000000E+01   
    8.9099998E+00  3.7800000E+00     3.0000000E+01   
    8.5100002E+00  3.9000001E+00     3.0000000E+01   
    8.1099997E+00  3.9100001E+00     3.0000000E+01   
    7.9099998E+00  4.2700000E+00     3.0000000E+01   
    7.9499998E+00  4.6700001E+00     3.0000000E+01   
    7.9499998E+00  5.0700002E+00     3.0000000E+01   
    7.8400002E+00  5.4699998E+00     3.0000000E+01   
    7.7300000E+00  5.8699999E+00     3.0000000E+01   
    7.6199999E+00  6.2700000E+00     3.0000000E+01   
    7.4899998E+00  6.6700001E+00     3.0000000E+01   
    7.2199998E+00  7.0700002E+00     3.0000000E+01   
    6.9600000E+00  7.4499998E+00     3.0000000E+01   
    6.6700001E+00  7.8299999E+00     3.0000000E+01   
    6.4899998E+00  8.2299995E+00     3.0000000E+01   
    6.2500000E+00  8.6099997E+00     3.0000000E+01   
    5.9499998E+00  9.0100002E+00     3.0000000E+01   
    5.6599998E+00  9.3999996E+00     3.0000000E+01   
    5.3000002E+00  9.7200003E+00     3.0000000E+01   
    4.9899998E+00  1.0070000E+01     3.0000000E+01   
    4.7500000E+00  1.0470000E+01     3.0000000E+01   
    4.5200000E+00  1.0860000E+01     3.0000000E+01   
    4.5100002E+00  1.1260000E+01     3.0000000E+01   
    4.5400000E+00  1.1660000E+01     3.0000000E+01   
    4.5799999E+00  1.2060000E+01     3.0000000E+01   
    4.6399999E+00  1.2430000E+01     3.0000000E+01   
    7.9000001E+00  3.0899999E+00     4.0000000E+01   
    7.7399998E+00  3.4900000E+00     4.0000000E+01   
    7.6399999E+00  3.8900001E+00     4.0000000E+01   
    7.5900002E+00  4.2900000E+00     4.0000000E+01   
    7.5700002E+00  4.6900001E+00     4.0000000E+01   
    7.5100002E+00  5.0900002E+00     4.0000000E+01   
    7.4299998E+00  5.4899998E+00     4.0000000E+01   
    7.3000002E+00  5.8899999E+00     4.0000000E+01   
    7.1999998E+00  6.2900000E+00     4.0000000E+01   
    7.0999999E+00  6.5200000E+00     4.0000000E+01   
    6.4600000E+00  1.9600000E+00     1.5000000E+01   
    6.1700001E+00  2.3299999E+00     1.5000000E+01   
    5.7800002E+00  2.5200000E+00     1.5000000E+01   
    5.4899998E+00  2.8599999E+00     1.5000000E+01   
    4.5500002E+00  3.6400001E+00     3.0000000E+01   
    4.4099998E+00  4.0400000E+00     3.0000000E+01   
    4.2399998E+00  4.4400001E+00     3.0000000E+01   
    4.1300001E+00  4.8400002E+00     3.0000000E+01   
    4.0300002E+00  5.2399998E+00     3.0000000E+01   
    3.9900000E+00  5.6399999E+00     3.0000000E+01   
    3.9400001E+00  6.0400000E+00     3.0000000E+01   
    3.9100001E+00  6.4400001E+00     3.0000000E+01   
    3.8099999E+00  6.8400002E+00     3.0000000E+01   
    3.6099999E+00  7.2300000E+00     3.0000000E+01   
    3.4200001E+00  7.6300001E+00     3.0000000E+01   
    3.2200000E+00  8.0299997E+00     3.0000000E+01   
    3.0799999E+00  8.2399998E+00     3.0000000E+01   
    9.3500004E+00  4.2399998E+00     5.0000000E+00   
    9.7200003E+00  4.5300002E+00     5.0000000E+00   
    1.0240000E+01  4.5599999E+00     5.0000000E+00   
    8.8999996E+00  4.1999998E+00     2.0000000E+01   
    8.6999998E+00  4.5000000E+00     2.0000000E+01   
    9.0500002E+00  4.6199999E+00     2.0000000E+01   
    9.4499998E+00  4.5599999E+00     2.0000000E+01   
    9.7500000E+00  4.9400001E+00     2.0000000E+01   
    1.0210000E+01  4.9200001E+00     2.0000000E+01   
    1.0240000E+01  6.2300000E+00     1.5000000E+01   
    9.8800001E+00  6.2199998E+00     1.5000000E+01   
    9.6400003E+00  5.8800001E+00     1.5000000E+01   
    9.6499996E+00  5.4800000E+00     1.5000000E+01   
    9.4200001E+00  5.1599998E+00     1.5000000E+01   
    9.0200005E+00  5.2100000E+00     1.5000000E+01   
    8.6199999E+00  5.1700001E+00     1.5000000E+01   
    8.3000002E+00  5.4699998E+00     1.5000000E+01   
    8.1000004E+00  5.8699999E+00     1.5000000E+01   
    7.9200001E+00  6.2700000E+00     1.5000000E+01   
    7.7500000E+00  6.6700001E+00     1.5000000E+01   
    7.5700002E+00  7.0700002E+00     1.5000000E+01   
    7.4099998E+00  7.4699998E+00     1.5000000E+01   
    7.2100000E+00  7.8699999E+00     1.5000000E+01   
    6.9699998E+00  8.2600002E+00     1.5000000E+01   
    6.7300000E+00  8.6499996E+00     1.5000000E+01   
    6.4000001E+00  9.0200005E+00     1.5000000E+01   
    6.0900002E+00  9.3900003E+00     1.5000000E+01   
    5.7600002E+00  9.7700005E+00     1.5000000E+01   
    5.4800000E+00  1.0150000E+01     1.5000000E+01   
    5.2199998E+00  1.0550000E+01     1.5000000E+01   
    5.0100002E+00  1.0950000E+01     1.5000000E+01   
    4.9499998E+00  1.1350000E+01     1.5000000E+01   
    4.9899998E+00  1.1750000E+01     1.5000000E+01   
    5.1799998E+00  1.2250000E+01     1.5000000E+01   
    9.4300003E+00  6.3000002E+00     5.0000000E+00   
    9.2600002E+00  5.9099998E+00     5.0000000E+00   
    9.1999998E+00  5.5100002E+00     5.0000000E+00   
    8.8400002E+00  5.6399999E+00     5.0000000E+00   
    8.5000000E+00  6.0000000E+00     5.0000000E+00   
    8.2399998E+00  6.3800001E+00     5.0000000E+00   
    8.1199999E+00  6.5500002E+00     5.0000000E+00   
    4.3400002E+00  6.1300001E+00     5.0000000E+00   
    4.7100000E+00  5.8899999E+00     5.0000000E+00   
    5.0500002E+00  5.6799998E+00     5.0000000E+00   
    5.4000001E+00  5.3600001E+00     5.0000000E+00   
    5.6999998E+00  4.9800000E+00     5.0000000E+00   
    6.0400000E+00  4.6399999E+00     5.0000000E+00   
    6.3099999E+00  4.2800002E+00     5.0000000E+00   
    6.5300002E+00  4.4499998E+00     5.0000000E+00   
    6.5999999E+00  4.8499999E+00     5.0000000E+00   
    6.5999999E+00  5.2500000E+00     5.0000000E+00   
    6.5300002E+00  5.6500001E+00     5.0000000E+00   
    6.4400001E+00  6.0500002E+00     5.0000000E+00   
    6.2900000E+00  6.4499998E+00     5.0000000E+00   
    6.1799998E+00  6.7199998E+00     5.0000000E+00   
    6.0400000E+00  6.3800001E+00     3.0000000E+00   
    6.1599998E+00  5.9800000E+00     3.0000000E+00   
    6.2700000E+00  5.5799999E+00     3.0000000E+00   
    6.3699999E+00  5.1799998E+00     3.0000000E+00   
    6.0400000E+00  5.2100000E+00     3.0000000E+00   
    5.7300000E+00  5.5700002E+00     3.0000000E+00   
    5.3800001E+00  5.8200002E+00     3.0000000E+00   
    5.2100000E+00  5.8499999E+00     3.0000000E+00   
    5.0000000E+00  5.9899998E+00     2.0000000E+00   
    5.3899999E+00  6.2199998E+00     2.0000000E+00   
    5.7500000E+00  6.4600000E+00     2.0000000E+00   
    6.0000000E+00  6.7800002E+00     2.0000000E+00   
    4.9899998E+00  8.3199997E+00     1.0000000E+01   
    4.7600002E+00  8.7100000E+00     1.0000000E+01   
    4.5000000E+00  9.1000004E+00     1.0000000E+01   
    4.1599998E+00  9.4499998E+00     1.0000000E+01   
    3.7600000E+00  9.5400000E+00     1.0000000E+01   
    3.3599999E+00  9.5100002E+00     1.0000000E+01   
    2.9600000E+00  9.4099998E+00     1.0000000E+01   
    2.5599999E+00  9.3599997E+00     1.0000000E+01   
    2.6700001E+00  9.0200005E+00     1.0000000E+01   
    3.0300000E+00  8.6499996E+00     1.0000000E+01   
    3.4200001E+00  8.3699999E+00     1.0000000E+01   
    3.7200000E+00  8.0100002E+00     1.0000000E+01   
    3.9100001E+00  7.6100001E+00     1.0000000E+01   
    4.0300002E+00  7.2100000E+00     1.0000000E+01   
    4.1199999E+00  6.8099999E+00     1.0000000E+01   
    4.1399999E+00  6.4099998E+00     1.0000000E+01   
    4.1900001E+00  6.0100002E+00     1.0000000E+01   
    4.3099999E+00  5.6100001E+00     1.0000000E+01   
    4.4000001E+00  5.2100000E+00     1.0000000E+01   
    4.5700002E+00  4.8099999E+00     1.0000000E+01   
    4.8099999E+00  4.4200001E+00     1.0000000E+01   
    4.9800000E+00  4.0200000E+00     1.0000000E+01   
    5.2500000E+00  3.6199999E+00     1.0000000E+01   
    5.5200000E+00  3.2300000E+00     1.0000000E+01   
    5.6799998E+00  3.4400001E+00     1.0000000E+01   
    5.4600000E+00  3.8399999E+00     1.0000000E+01   
    5.2199998E+00  4.2399998E+00     1.0000000E+01   
    5.4400001E+00  4.3099999E+00     1.0000000E+01   
    5.7199998E+00  3.9200001E+00     1.0000000E+01   
    6.0400000E+00  3.6099999E+00     1.0000000E+01   
    6.2700000E+00  3.2200000E+00     1.0000000E+01   
    6.4600000E+00  2.8199999E+00     1.0000000E+01   
    6.7800002E+00  2.7900000E+00     1.0000000E+01   
    6.7800002E+00  3.1900001E+00     1.0000000E+01   
    6.7600002E+00  3.5899999E+00     1.0000000E+01   
    6.7500000E+00  3.9900000E+00     1.0000000E+01   
    6.7199998E+00  4.3899999E+00     1.0000000E+01   
    6.7700000E+00  4.7900000E+00     1.0000000E+01   
    6.7700000E+00  5.1900001E+00     1.0000000E+01   
    6.7300000E+00  5.5900002E+00     1.0000000E+01   
    6.6300001E+00  5.9899998E+00     1.0000000E+01   
    6.4899998E+00  6.3899999E+00     1.0000000E+01   
    6.3499999E+00  6.7900000E+00     1.0000000E+01   
    6.2199998E+00  7.1100001E+00     1.0000000E+01   
    5.5500002E+00  8.7399998E+00     4.0000000E+01   
    5.3699999E+00  9.1400003E+00     4.0000000E+01   
    5.0799999E+00  9.5000000E+00     4.0000000E+01   
    4.7600002E+00  9.8599997E+00     4.0000000E+01   
    4.4099998E+00  1.0210000E+01     4.0000000E+01   
    4.1900001E+00  1.0610000E+01     4.0000000E+01   
    4.0700002E+00  1.1010000E+01     4.0000000E+01   
    3.9800000E+00  1.1410000E+01     4.0000000E+01   
    3.9700000E+00  1.1810000E+01     4.0000000E+01   
    3.9700000E+00  1.2210000E+01     4.0000000E+01   
    4.0000000E+00  1.2580000E+01     4.0000000E+01   
    2.7700000E+00  7.2199998E+00     2.0000000E+01   
    2.5300000E+00  7.5900002E+00     2.0000000E+01   
    2.1400001E+00  7.8600001E+00     2.0000000E+01   
    1.9000000E+00  8.2100000E+00     2.0000000E+01   
    1.7100000E+00  8.6099997E+00     2.0000000E+01   
    1.5400000E+00  9.0100002E+00     2.0000000E+01   
    1.4900000E+00  9.3000002E+00     2.0000000E+01   
    3.0200000E+00  7.5900002E+00     2.0000000E+01   
    2.8499999E+00  7.9899998E+00     2.0000000E+01   
    2.7100000E+00  8.3900003E+00     2.0000000E+01   
    2.3299999E+00  8.5100002E+00     2.0000000E+01   
    2.0899999E+00  8.8000002E+00     2.0000000E+01   
    1.9600000E+00  9.1999998E+00     2.0000000E+01   
    1.7300000E+00  9.6000004E+00     2.0000000E+01   
    1.5599999E+00  1.0000000E+01     2.0000000E+01   
    1.5900000E+00  1.0400000E+01     2.0000000E+01   
    1.6500000E+00  1.0800000E+01     2.0000000E+01   
    1.7000000E+00  1.1200000E+01     2.0000000E+01   
    1.9400001E+00  1.1540000E+01     2.0000000E+01   
    2.2000000E+00  1.1920000E+01     2.0000000E+01   
    2.1800001E+00  1.2320000E+01     2.0000000E+01   
    2.1800001E+00  1.2720000E+01     2.0000000E+01   
    2.1199999E+00  1.3040000E+01     2.0000000E+01   
    2.3599999E+00  8.9700003E+00     3.0000000E+01   
    2.2000000E+00  9.3699999E+00     3.0000000E+01   
    2.2200000E+00  9.7700005E+00     3.0000000E+01   
    2.2800000E+00  9.9899998E+00     3.0000000E+01   
    2.7600000E+00  9.8699999E+00     2.5000000E+01   
    3.1099999E+00  1.0070000E+01     2.5000000E+01   
    3.2200000E+00  1.0270000E+01     2.5000000E+01   
    2.9200001E+00  1.1360000E+01     2.0000000E+01   
    2.5200000E+00  1.1390000E+01     2.0000000E+01   
    2.1500001E+00  1.1260000E+01     2.0000000E+01   
    2.2200000E+00  1.0860000E+01     2.0000000E+01   
    2.4200001E+00  1.0470000E+01     2.0000000E+01   
    2.7600000E+00  1.0370000E+01     2.0000000E+01   
    3.0000000E+00  1.0740000E+01     2.0000000E+01   
    3.0200000E+00  1.1030000E+01     2.0000000E+01   
    2.6099999E+00  1.1900000E+01     3.0000000E+01   
    2.6099999E+00  1.2300000E+01     3.0000000E+01   
    2.6600001E+00  1.2700000E+01     3.0000000E+01   
    5.3130002E+00  1.1940000E+00     1.5000000E+01   
    5.5460000E+00  7.5000000E-01     1.5000000E+01   
